-0.511634 0.079526 -0.034818 
-0.064391 0.167620 0.116861 
-0.394106 -0.657081 0.248017 
-0.401399 -0.578633 0.017615 
-0.065842 -0.129218 0.474880 
-0.194085 0.390554 0.031259 
-0.187085 -0.444483 -0.052105 
-0.650860 0.116268 0.056530 
0.278904 -0.667967 0.122482 
-0.088668 -0.446830 0.400899 
-0.109766 -0.390272 0.392623 
-0.454410 0.429298 0.323508 
-0.407259 0.557577 -0.518073 
-0.381000 0.354038 -0.016191 
0.446029 -0.664644 0.116602 
0.519639 -0.173241 -0.059108 
0.683916 -0.482260 0.129594 
-0.434376 0.436711 -0.506903 
-0.648700 0.318253 0.242177 
0.517825 -0.286161 0.317165 
-0.261308 -0.645805 0.367854 
-0.132982 -0.442615 -0.174189 
0.128948 -0.076429 0.502305 
0.251583 -0.165684 0.523926 
0.521541 -0.359773 -0.029652 
-0.626379 -0.223074 0.105574 
-0.665061 0.152879 0.088797 
-0.530041 0.254847 -0.036958 
-0.028188 0.159557 0.217005 
-0.273153 0.058404 -0.119682 
0.086120 -0.635806 0.095595 
0.341135 -0.318740 0.484685 
-0.225755 -0.647771 0.207501 
-0.180820 -0.592987 -0.187259 
0.163775 -0.169520 -0.271110 
-0.617862 -0.073013 0.300768 
0.171193 -0.654057 -0.160733 
0.144483 -0.579514 0.479475 
0.438348 0.044993 -0.019344 
0.064756 0.114809 0.348403 
-0.346784 -0.654048 0.297031 
-0.547247 -0.309035 -0.000546 
0.437353 -0.619791 0.286720 
0.186189 -0.127520 0.525222 
0.322647 -0.628442 -0.075647 
-0.244147 0.169838 -0.028405 
-0.484444 0.450395 0.115466 
-0.456222 0.040423 -0.072274 
0.411264 -0.345372 -0.161852 
-0.155156 -0.127880 0.437710 
-0.398201 -0.549679 0.057426 
0.080113 -0.453008 -0.271452 
-0.450609 0.311842 -0.080756 
-0.019328 0.550250 -0.212380 
0.467999 -0.112685 -0.096755 
-0.084429 0.107145 -0.065276 
-0.019306 0.168282 0.047414 
-0.581277 0.188283 0.486448 
-0.157880 0.152659 -0.011452 
-0.491934 0.303960 -0.056299 
-0.133254 -0.232991 -0.264035 
0.129705 -0.614403 0.354814 
0.389358 -0.474436 0.416158 
0.038962 -0.082063 0.500355 
-0.262714 -0.660781 0.140753 
0.146449 -0.116898 0.530461 
-0.444391 0.549957 -0.382765 
-0.394613 0.367729 -0.020255 
-0.422396 0.548968 -0.456225 
-0.350295 -0.513047 0.389376 
-0.230776 0.161445 -0.041619 
0.668496 -0.520390 0.156183 
0.442547 0.083794 0.143472 
0.506089 -0.267317 0.338259 
0.175108 -0.266550 0.553580 
0.652222 -0.532381 0.216569 
-0.313192 -0.669192 0.136152 
-0.475686 0.367743 0.410374 
-0.160552 0.432416 0.026967 
-0.622371 0.248103 0.435641 
-0.409652 0.473563 -0.378560 
-0.472358 0.476157 -0.484576 
-0.634549 0.123416 0.453119 
-0.332352 -0.626262 0.490675 
-0.476070 0.058475 0.434501 
0.072330 0.603762 -0.269897 
-0.469882 -0.303221 0.379446 
0.631609 -0.344872 0.224733 
-0.479278 0.441442 0.019855 
0.550224 -0.150727 0.225840 
-0.379955 -0.043980 0.424720 
0.359575 0.139462 0.042136 
0.208295 0.071263 -0.135858 
-0.561194 0.534973 -0.326542 
-0.062838 -0.620031 0.313553 
0.464925 -0.010293 -0.040620 
0.192995 -0.633871 0.379481 
0.439378 -0.602883 -0.002547 
0.528707 -0.208374 -0.050077 
-0.541364 0.418819 0.326879 
-0.030827 -0.619253 0.318530 
-0.130128 -0.511403 0.454163 
0.403254 -0.044648 0.376372 
0.415378 0.108476 0.103058 
0.186011 -0.491253 0.528882 
-0.561117 -0.028569 -0.030181 
-0.324448 -0.389059 -0.049281 
-0.414623 0.340745 -0.116444 
0.221500 -0.604401 0.465834 
-0.226845 0.380715 -0.048860 
-0.646559 0.091932 0.065683 
-0.622952 -0.114325 0.024606 
0.321597 -0.671909 0.115728 
-0.430041 0.272793 0.415806 
-0.430462 0.419777 -0.408357 
-0.240036 -0.369181 0.422127 
-0.026716 -0.615106 -0.186960 
-0.010271 0.613304 -0.240089 
-0.413275 0.354673 -0.141787 
-0.141969 -0.413880 -0.186036 
0.255332 0.016423 -0.154973 
-0.097096 0.585051 -0.081567 
-0.535537 0.417682 -0.002173 
0.430511 0.062933 -0.003996 
0.390833 0.006978 0.353970 
-0.145402 -0.319182 0.418537 
-0.412287 -0.273577 0.422518 
0.001897 0.183053 0.109941 
-0.457221 0.053378 0.401180 
-0.433472 -0.550453 0.140996 
-0.177302 0.052391 0.346857 
-0.068634 0.563351 -0.118529 
-0.082509 0.164005 0.122655 
0.118052 -0.493428 0.528968 
-0.453337 -0.403566 0.036294 
-0.111228 0.635694 -0.102690 
0.156552 -0.399313 0.553756 
0.352744 -0.519690 -0.161611 
-0.610060 -0.129715 -0.001645 
-0.149541 -0.555441 0.500381 
-0.672593 0.110124 0.264977 
-0.595453 -0.248733 0.269099 
0.054255 0.555877 -0.201414 
-0.254703 -0.152095 -0.165991 
0.317180 -0.660097 0.191445 
0.511057 -0.016945 0.090297 
-0.401078 0.456176 -0.253102 
0.409570 0.102566 0.048835 
0.056589 0.196981 0.124577 
-0.429793 -0.361209 0.339800 
-0.279159 0.203830 0.292658 
-0.543896 0.571164 -0.435640 
0.216208 -0.505620 0.514207 
0.014396 -0.641355 -0.048116 
-0.163069 0.388584 -0.043618 
-0.003128 0.693807 -0.202914 
-0.459794 -0.624380 0.390962 
-0.676342 0.161818 0.105773 
-0.192537 0.467455 -0.118217 
0.003857 -0.495692 0.490390 
0.287023 0.187384 0.194643 
-0.325782 0.381246 -0.019373 
0.680701 -0.360244 0.136174 
-0.057623 -0.278900 0.495801 
0.165536 -0.422380 0.542252 
-0.594154 -0.255064 0.265201 
-0.674428 0.127603 0.332512 
0.674857 -0.502746 0.177314 
0.108917 -0.636903 0.174543 
-0.362575 -0.367285 -0.057401 
0.301719 -0.035569 -0.149274 
0.073597 -0.468676 -0.265575 
0.358755 0.103881 -0.032190 
-0.681160 0.216080 0.174447 
0.397599 -0.193350 0.446293 
-0.279899 0.518675 -0.042314 
-0.412625 0.484188 -0.245542 
-0.594009 -0.240681 0.292577 
-0.329849 -0.500905 0.288175 
-0.346958 0.361986 -0.009780 
0.521105 -0.105533 0.271401 
-0.662024 0.368197 0.192896 
0.413981 -0.641712 0.025608 
0.342535 0.157760 0.207232 
-0.269824 -0.038241 -0.155618 
-0.223186 -0.195192 -0.164087 
-0.341005 -0.100539 0.446517 
0.408531 -0.217740 0.436918 
-0.117366 -0.487991 -0.186973 
-0.178573 -0.564282 0.471869 
0.017475 -0.659672 -0.088539 
0.360238 -0.472742 -0.177766 
0.320890 0.117716 0.302867 
-0.658208 0.389857 0.210678 
-0.257637 -0.066222 -0.162215 
-0.317067 -0.482878 0.353926 
-0.427152 0.423687 -0.402743 
0.407760 -0.253466 -0.164241 
0.063712 -0.048662 0.429215 
-0.528418 0.442511 -0.057398 
0.277826 -0.472932 0.494243 
-0.390606 -0.527013 0.093819 
0.007651 0.145542 0.284582 
-0.014810 0.022371 -0.156472 
0.688185 -0.389014 0.193737 
-0.130249 -0.253232 0.415282 
-0.149179 0.514920 -0.150361 
-0.255181 -0.529910 -0.034369 
0.245254 -0.679323 0.080190 
0.068342 -0.095519 0.522217 
-0.142059 0.412310 -0.083027 
-0.497923 0.441659 0.009090 
0.249359 0.177742 0.001575 
0.550975 -0.123885 0.186615 
-0.454208 -0.278566 -0.103676 
-0.466244 0.202465 -0.059979 
-0.421450 0.113310 0.464319 
0.462573 0.007590 -0.025139 
-0.486594 0.201011 -0.058075 
0.345907 -0.614682 -0.030209 
-0.204560 -0.382634 0.430367 
-0.431666 0.420778 -0.422663 
-0.425106 0.521884 -0.365020 
-0.411623 0.497677 -0.446904 
0.392629 0.019246 -0.086631 
0.080965 -0.106701 0.530540 
-0.693223 0.152617 0.240219 
0.280091 0.058576 -0.126690 
0.506303 -0.008242 0.180728 
-0.359632 -0.127433 -0.156255 
-0.217251 0.434855 -0.091437 
0.311523 -0.666703 0.137959 
-0.110375 -0.627625 0.539968 
0.641174 -0.547062 0.080991 
-0.079070 0.636386 -0.087217 
0.516768 -0.100862 0.277652 
-0.558287 -0.327408 0.088106 
-0.397394 -0.668725 0.118771 
-0.156235 -0.452464 -0.088169 
0.513963 -0.099807 -0.028760 
0.632353 -0.413635 0.026963 
0.208398 0.151923 0.307544 
0.281908 -0.023146 0.422758 
-0.096317 0.152057 0.043130 
0.284981 -0.085147 0.457457 
-0.154761 -0.443539 -0.103717 
-0.632277 -0.167174 0.051613 
-0.347457 -0.536826 0.190629 
0.234036 0.076713 -0.130312 
0.065135 -0.274160 -0.308343 
-0.604572 0.051518 0.049376 
-0.134333 0.173347 0.127823 
0.505426 -0.113698 -0.048593 
0.210793 0.208778 0.118932 
0.226938 0.191034 0.242950 
0.013349 0.011244 0.400720 
-0.377603 0.413837 0.324943 
0.521361 -0.137578 0.289048 
-0.650073 0.167855 0.440326 
-0.339203 -0.177798 0.454666 
-0.149753 -0.641125 0.454365 
-0.248784 -0.401041 -0.074528 
-0.604846 -0.089087 0.320213 
0.508323 -0.612463 0.260999 
-0.637165 -0.028619 0.106767 
0.362933 0.121017 0.000535 
-0.545915 0.475256 -0.260149 
-0.523435 0.459451 -0.074434 
-0.565871 -0.303568 0.253284 
-0.518443 0.570196 -0.454645 
-0.045037 0.673460 -0.134152 
0.527479 -0.251210 0.302712 
-0.512999 0.259433 0.495265 
0.028963 -0.630041 0.207014 
-0.265516 -0.680759 -0.027358 
-0.457303 0.361059 -0.324004 
0.369184 -0.034620 0.396185 
-0.413387 0.450546 0.140365 
-0.347248 0.319831 -0.008535 
0.506644 -0.232400 -0.088790 
-0.172548 0.410299 0.024442 
0.435006 -0.037585 -0.095468 
-0.526324 0.465919 -0.274776 
-0.588350 0.356461 0.384703 
-0.043336 0.162544 0.047321 
-0.222800 0.195622 0.099956 
-0.646320 0.227517 0.407497 
-0.491098 -0.275487 0.386774 
-0.135771 0.495705 -0.041633 
0.172767 -0.526292 0.507098 
-0.209763 0.367841 0.022923 
0.385922 -0.091348 0.423641 
-0.063780 0.167707 0.132674 
-0.251149 -0.192194 0.440520 
-0.432451 0.058487 0.381335 
-0.406900 0.479368 -0.285159 
0.313669 0.164798 0.235551 
-0.317017 0.304874 0.264025 
-0.330910 -0.421204 -0.034537 
0.158726 -0.311016 -0.283961 
0.009262 -0.634211 0.127352 
-0.079327 -0.287300 -0.307640 
-0.497611 0.451574 -0.376958 
0.381917 0.029152 -0.086781 
0.251056 0.045655 -0.140742 
0.468673 -0.075366 0.337254 
0.380415 0.141126 0.162546 
-0.650564 0.289340 0.148157 
0.356917 -0.515960 -0.158076 
0.265154 -0.668507 0.135070 
-0.618644 -0.257811 0.146803 
-0.484824 0.189727 0.507173 
0.339037 -0.285719 -0.210150 
0.500600 -0.007204 0.221018 
-0.416014 -0.552182 0.071429 
0.582464 -0.506936 -0.012176 
-0.680891 0.158593 0.278640 
-0.157642 -0.047651 0.411628 
-0.401029 0.289280 -0.045058 
0.564727 -0.226795 0.084254 
0.306644 -0.018671 0.412529 
-0.337968 -0.306470 -0.110692 
-0.338685 0.360110 0.292280 
-0.272554 -0.523714 0.429400 
0.005387 -0.474817 0.504431 
-0.620588 -0.244480 0.096457 
0.360672 -0.566455 -0.133698 
-0.171913 0.035689 0.358243 
-0.510773 0.236375 0.502611 
0.659359 -0.474925 0.248836 
0.452537 -0.029488 -0.073196 
0.579693 -0.387763 0.278919 
0.445202 -0.444020 -0.101942 
-0.354518 -0.492152 0.157687 
-0.490961 0.428224 -0.409791 
0.298784 -0.660617 -0.087469 
-0.373186 -0.221579 0.444341 
-0.552033 0.398727 0.008040 
-0.383674 -0.668472 0.129847 
-0.437203 0.090791 0.463053 
-0.113995 -0.540571 0.515334 
0.074438 -0.212099 -0.301521 
0.431046 -0.263269 0.421756 
0.346781 0.145327 0.240197 
-0.424163 0.366590 -0.253839 
0.533551 -0.363150 0.012590 
-0.521442 0.438249 -0.219736 
-0.446701 -0.563886 0.073451 
-0.531055 -0.284514 -0.038256 
-0.513906 0.350672 -0.147551 
-0.303898 -0.158920 -0.155591 
-0.343815 0.323363 0.293323 
0.380761 0.022282 0.346688 
0.304332 -0.175956 0.488917 
-0.262293 0.244322 0.175292 
-0.104608 -0.098875 0.438766 
0.056589 0.584478 -0.225636 
0.246827 -0.098564 -0.188977 
0.068943 -0.612452 0.395884 
-0.476646 -0.592567 0.064009 
-0.577830 0.100393 -0.003752 
-0.642800 0.045555 0.166502 
-0.599826 0.071019 0.436174 
-0.458495 0.486798 -0.115623 
-0.544729 0.195915 0.502835 
-0.179114 0.589838 -0.103646 
0.230703 -0.455214 -0.229846 
-0.450649 -0.591860 0.379244 
0.042219 -0.609390 0.518360 
-0.329842 -0.390436 -0.044221 
0.458796 -0.233238 0.397412 
0.505658 -0.144872 -0.057177 
0.006245 -0.634438 0.120876 
0.103142 -0.624928 0.270438 
0.281138 0.191252 0.113191 
0.038963 0.193853 0.149289 
0.524213 -0.633891 0.104402 
-0.070607 -0.448742 0.426838 
-0.116984 0.429946 -0.104817 
0.440456 -0.629558 0.017862 
0.161838 -0.462930 -0.246658 
0.558716 -0.304305 0.053849 
-0.653625 0.247072 0.302954 
0.494216 0.008450 0.088493 
-0.526595 -0.281523 -0.046602 
-0.507837 -0.313440 -0.035410 
0.307817 -0.644671 -0.095014 
0.231980 -0.656233 0.301353 
-0.108885 0.486703 -0.151382 
-0.574082 0.176715 0.483941 
0.612555 -0.543105 0.031738 
0.421478 -0.521317 -0.070659 
-0.193405 0.418693 0.043729 
0.388261 -0.572728 -0.069432 
0.369012 0.043035 -0.091090 
-0.363201 -0.644007 0.372354 
0.543213 -0.613629 0.063336 
0.440530 -0.441313 0.395259 
-0.135234 -0.341152 -0.254783 
-0.008486 -0.651949 -0.179069 
0.070688 0.181161 0.020046 
-0.112165 0.552102 -0.170709 
-0.043403 -0.617634 0.433134 
0.363508 0.152211 0.147800 
0.404396 0.111219 0.229476 
-0.316416 -0.405479 0.342800 
-0.287248 0.241895 0.028802 
-0.487195 -0.300815 -0.072194 
-0.270148 -0.197107 -0.156994 
-0.444979 -0.156113 -0.122958 
-0.344568 -0.674873 0.053583 
-0.383567 -0.511505 0.079094 
-0.420921 -0.559736 0.438435 
0.174668 0.091632 -0.116455 
0.525542 -0.630190 0.084424 
0.421370 -0.154543 -0.145909 
-0.060421 -0.632809 0.462103 
0.521857 -0.121760 0.280248 
-0.512325 0.046439 0.419778 
-0.060706 0.527924 -0.110000 
0.266323 0.149157 -0.037938 
-0.079915 -0.341995 0.427218 
0.156679 -0.635719 0.398724 
-0.315786 -0.152886 -0.156445 
-0.654265 0.359547 0.149103 
-0.057212 0.655511 -0.175273 
-0.113312 0.164563 0.110742 
0.405067 -0.632813 0.284037 
-0.383765 -0.534740 0.145944 
-0.423224 0.116440 0.469855 
-0.270122 -0.431358 -0.058296 
0.025759 0.515563 -0.211270 
0.476793 -0.641283 0.048876 
-0.161156 -0.350032 -0.177994 
-0.408433 -0.653832 -0.012009 
-0.323103 0.446127 0.095983 
-0.273519 -0.648003 0.345860 
-0.156219 -0.298669 -0.240580 
-0.332626 0.348666 -0.006930 
-0.167233 -0.660410 0.130501 
-0.229816 -0.041921 0.413918 
-0.257670 0.192948 0.027228 
-0.301089 -0.428658 -0.050425 
-0.489887 -0.648614 0.183475 
-0.195984 -0.685631 -0.195716 
-0.447561 -0.640707 0.343106 
0.073704 -0.037152 0.418477 
-0.168409 -0.541788 -0.083230 
-0.516296 -0.383026 0.125248 
-0.658540 0.203678 0.407313 
-0.475542 0.046858 -0.058105 
-0.473856 -0.669770 0.035685 
-0.359937 0.256237 0.347545 
-0.097796 0.130527 0.246868 
-0.162718 -0.641548 0.385558 
-0.156794 0.150305 0.244901 
-0.178738 0.597142 -0.063160 
0.485451 -0.576360 0.315897 
-0.283976 0.045450 0.368837 
-0.593549 -0.043430 -0.001557 
-0.529504 -0.328665 0.286772 
0.325140 -0.520177 -0.195003 
0.247700 -0.525081 0.484827 
-0.509178 0.028370 0.378256 
-0.677041 0.134554 0.377732 
-0.677519 0.140758 0.363662 
0.657164 -0.414972 0.262746 
0.139924 -0.054380 0.463456 
-0.581766 -0.300284 0.221519 
-0.474311 0.482141 -0.478480 
-0.345012 0.083358 0.352092 
-0.140176 -0.518616 -0.122247 
0.102012 -0.634958 0.159458 
-0.631482 -0.223868 0.121016 
-0.147123 -0.549855 -0.136071 
-0.470875 0.473296 -0.073087 
-0.125495 0.536048 -0.065493 
0.297514 -0.336755 0.507639 
-0.645649 0.250581 0.064538 
-0.544513 0.584254 -0.392661 
-0.531544 0.572316 -0.357203 
0.021153 0.133609 0.311547 
0.541198 -0.200636 -0.017256 
-0.132699 -0.519207 0.461405 
0.246733 -0.542076 -0.204914 
-0.260725 -0.471025 -0.044305 
-0.442133 0.225951 0.465041 
0.307203 -0.269007 0.513460 
-0.354814 -0.641328 0.411406 
-0.071726 0.572203 -0.194635 
-0.693218 0.151813 0.179148 
-0.297871 -0.275263 -0.127299 
-0.016135 0.543419 -0.209532 
-0.058408 -0.206296 -0.302412 
-0.298343 0.156371 -0.047525 
0.353708 -0.589669 0.416543 
0.267794 -0.036878 0.439331 
-0.579589 0.283349 0.005247 
0.675166 -0.489676 0.210644 
-0.511408 -0.367537 0.242962 
-0.330399 -0.657874 0.224682 
-0.520953 -0.144113 -0.089333 
0.563907 -0.308881 0.204550 
-0.419961 0.272945 0.395280 
-0.241126 -0.573391 -0.100539 
-0.353151 0.463458 0.047452 
-0.550393 0.077799 0.455778 
-0.151400 -0.466279 -0.097064 
-0.029091 -0.620394 0.308600 
0.475037 -0.007776 0.275688 
-0.114175 0.461723 0.005816 
-0.285358 0.383670 0.110457 
-0.277295 -0.253252 0.441242 
-0.241163 0.491937 -0.090391 
-0.487387 -0.060578 -0.091129 
0.323221 -0.644401 0.397639 
0.319587 -0.543436 -0.181689 
-0.288865 -0.653131 0.318559 
0.360749 -0.342215 0.461782 
-0.482600 0.162084 0.513245 
0.065219 0.562313 -0.218956 
0.170523 -0.672651 0.192713 
0.562582 -0.204137 0.158644 
-0.108985 -0.508164 0.467147 
0.289673 -0.146083 0.496678 
-0.009263 0.083721 -0.099615 
-0.402107 0.339609 -0.044175 
-0.605588 0.260236 0.455469 
-0.248566 0.546740 -0.059253 
-0.061588 0.014858 0.391621 
-0.399370 0.239720 0.384387 
-0.193497 -0.138467 0.429258 
-0.657738 -0.110002 0.217484 
-0.511915 0.213160 -0.049546 
0.135984 0.025386 -0.161684 
-0.398308 -0.148322 -0.136913 
-0.097462 -0.693464 -0.145944 
0.293381 0.061517 0.349660 
0.223767 -0.547786 0.479199 
0.292366 -0.610236 -0.155101 
-0.657368 0.226224 0.356696 
-0.298726 0.374598 -0.026384 
-0.582912 -0.005624 0.003733 
-0.049031 0.442225 -0.039650 
0.532195 -0.150657 0.271348 
-0.210105 -0.692534 -0.164321 
-0.038693 -0.098361 0.469696 
0.674346 -0.467130 0.072677 
-0.171484 -0.267079 0.426366 
-0.158299 -0.396247 -0.132267 
0.464855 -0.656911 0.173248 
-0.136402 0.410312 -0.077888 
0.236711 0.158522 0.296415 
0.192529 -0.349484 -0.273432 
0.629068 -0.523768 0.257532 
-0.627214 -0.031762 0.075639 
0.228649 -0.672594 0.107742 
-0.099411 -0.000383 -0.154955 
-0.204577 0.395601 0.042474 
-0.353031 -0.541348 0.290989 
-0.590884 0.297830 0.442141 
0.322714 -0.608223 -0.116979 
-0.385474 -0.518677 0.110868 
-0.632849 -0.227622 0.199886 
0.153734 -0.664927 0.217936 
0.412777 0.030456 -0.064716 
0.562037 -0.206311 0.184596 
-0.049491 -0.430286 0.454558 
-0.265481 -0.687023 -0.150230 
0.444324 0.052450 0.001192 
0.152093 -0.672780 -0.075507 
-0.360673 0.292239 -0.028385 
-0.132162 -0.252200 -0.273612 
-0.523047 0.410430 0.352040 
0.132025 0.023098 0.407319 
0.233243 -0.505154 0.507836 
-0.632180 -0.111005 0.056217 
0.051778 -0.098483 0.520976 
-0.567058 0.187918 -0.025918 
-0.645106 -0.077892 0.089985 
-0.163063 -0.349464 -0.171674 
0.449714 0.072526 0.216337 
-0.376199 -0.517796 0.406484 
0.355918 -0.117960 0.448352 
0.286909 0.190668 0.146087 
-0.059633 -0.404345 0.439109 
0.201508 0.169892 -0.027885 
-0.374756 -0.673538 0.064393 
0.167141 0.202340 0.214374 
0.336657 -0.603502 0.428978 
0.417773 -0.671522 0.106018 
-0.328147 -0.618036 0.496937 
0.582793 -0.488940 -0.014650 
-0.618641 -0.019712 0.058875 
-0.101170 -0.383007 -0.268962 
-0.014346 0.110925 0.326926 
-0.371270 0.422496 0.310874 
0.191399 -0.479970 0.531731 
-0.106260 -0.487626 -0.205161 
0.556491 -0.158993 0.198176 
-0.513044 0.339875 -0.095009 
-0.188054 0.054019 0.348508 
0.117647 -0.030884 0.416008 
0.180309 0.083005 -0.124930 
-0.544769 0.149366 0.490962 
0.134508 -0.036953 -0.181618 
0.629758 -0.562274 0.096402 
-0.579102 0.369521 0.376231 
-0.141888 0.536799 -0.043316 
-0.688009 0.200980 0.231945 
-0.436597 -0.648364 0.002085 
-0.027873 -0.067368 0.431342 
0.467468 -0.205823 0.385464 
-0.377156 -0.168588 0.448851 
0.190849 -0.054026 -0.177705 
0.514809 -0.625662 0.217666 
-0.001596 -0.638489 0.049570 
-0.055265 -0.565001 -0.203557 
-0.422878 0.457836 -0.525515 
0.239139 -0.651356 0.369751 
-0.254357 -0.098624 0.431376 
-0.432930 0.436376 -0.064549 
0.307059 -0.659462 -0.052826 
-0.372723 -0.182291 -0.152583 
0.042302 -0.512983 0.500257 
-0.559038 0.435717 0.094932 
-0.559869 -0.302498 0.271726 
-0.470669 -0.416654 0.171456 
-0.139682 -0.462975 -0.134687 
0.317896 0.123510 -0.040462 
0.145480 -0.395722 0.553542 
-0.226283 0.152885 0.236314 
-0.042325 0.618612 -0.213067 
-0.549578 0.099538 -0.026134 
-0.590246 0.121562 -0.005671 
-0.604261 0.057176 0.295475 
-0.570493 -0.076326 -0.033480 
0.628471 -0.491625 0.016815 
-0.431745 0.455642 0.196381 
-0.018737 0.593571 -0.163620 
-0.263576 -0.298917 -0.119069 
0.168475 -0.288012 -0.279355 
0.122436 -0.213691 0.551653 
-0.274951 -0.611749 -0.087364 
-0.456875 0.370128 0.400862 
-0.155988 -0.507325 0.415471 
0.202616 -0.483507 0.529283 
-0.315344 0.286160 0.271507 
0.552619 -0.340643 0.238517 
-0.337761 -0.481968 -0.005259 
-0.369382 -0.562636 0.486437 
0.452099 -0.448338 0.384688 
-0.428470 -0.432068 0.158109 
0.005376 0.557442 -0.231244 
-0.137412 0.547977 -0.156809 
0.340658 -0.382382 0.468410 
-0.518597 -0.350513 0.255216 
-0.082668 -0.497255 -0.220513 
-0.102652 -0.616343 -0.198422 
-0.443082 0.419966 -0.487737 
-0.440702 -0.055155 0.419205 
0.313974 0.118299 0.304769 
-0.061777 -0.693527 -0.150698 
0.157531 -0.606764 0.478837 
-0.499732 -0.191696 -0.100438 
0.349760 -0.665934 0.201074 
-0.066261 -0.226500 0.517939 
-0.249792 0.372682 0.072899 
0.302117 0.182998 0.135201 
-0.212112 0.373179 -0.039542 
-0.509121 0.352418 -0.268531 
-0.588290 -0.279424 0.227241 
-0.316017 0.348725 0.224104 
-0.149026 0.172494 0.178122 
0.418818 -0.654155 0.044494 
0.059199 -0.655596 -0.080407 
-0.147822 0.138792 -0.027413 
0.559509 -0.206554 0.216524 
-0.577174 -0.248062 -0.005467 
0.110958 -0.433301 0.536189 
-0.266660 0.335740 0.016506 
-0.383691 -0.273656 -0.125869 
-0.546522 0.480484 -0.187917 
-0.653258 -0.083606 0.221114 
0.103434 -0.557827 0.487000 
0.092425 -0.297744 0.561983 
0.313415 -0.253796 -0.224011 
-0.363757 0.371039 0.326899 
-0.119028 -0.244609 0.417890 
-0.106537 0.533251 -0.172418 
-0.329543 0.384302 0.261011 
0.521843 -0.208161 0.311801 
-0.206958 -0.553298 -0.080317 
0.013624 -0.293593 -0.311550 
0.015671 -0.630982 -0.177795 
0.246479 -0.581057 -0.181002 
-0.137888 -0.054556 0.422085 
-0.097922 -0.635546 0.080417 
-0.430216 0.427368 -0.054574 
-0.435246 0.351046 -0.234364 
-0.125307 -0.046267 -0.177940 
-0.469923 0.560128 -0.516069 
0.208259 0.198422 0.044417 
-0.120390 0.528435 -0.165231 
0.141255 -0.296771 -0.287699 
-0.162046 -0.633433 0.490776 
0.447856 -0.584205 0.309480 
-0.614429 0.003455 0.248179 
-0.071831 -0.121547 0.459266 
-0.600226 0.241926 0.010940 
-0.338608 -0.511286 0.327604 
0.338334 -0.592321 0.428783 
-0.142200 -0.641033 -0.067160 
-0.200337 -0.641820 -0.031561 
-0.449162 0.198223 -0.060396 
-0.664111 0.100352 0.269570 
-0.292430 0.020174 -0.134787 
-0.568379 0.406283 0.034081 
0.173463 -0.272328 -0.279047 
-0.399905 0.418659 -0.212392 
0.085861 -0.150623 -0.277511 
-0.490907 0.470020 -0.416860 
0.455180 0.043149 0.257939 
-0.523991 0.251201 -0.040864 
-0.193387 -0.648255 0.279285 
0.208977 -0.448371 0.526393 
0.197992 -0.237505 -0.271001 
-0.178705 -0.656937 0.230249 
-0.429668 -0.562051 0.423886 
-0.617699 0.062262 0.397538 
-0.539641 0.550585 -0.308838 
-0.421390 0.350596 -0.177022 
0.050430 -0.511901 0.502804 
-0.235894 0.197143 0.169655 
0.087595 -0.678174 -0.088525 
-0.427195 0.614297 -0.547398 
0.315541 -0.238386 0.507598 
0.406947 0.116569 0.110894 
0.486032 -0.030939 0.277006 
0.080515 -0.013679 0.414494 
-0.530076 0.363392 0.416343 
0.231050 -0.543737 0.480672 
-0.643252 0.059467 0.222195 
0.315678 -0.642948 -0.061133 
-0.147851 0.394275 -0.045333 
-0.055701 -0.288857 -0.314315 
-0.393875 -0.674422 0.051438 
-0.368119 -0.432013 0.014693 
-0.468340 -0.384750 0.026139 
0.151466 -0.103647 0.523245 
-0.470051 0.329954 -0.171766 
-0.442919 0.416382 0.346534 
0.602213 -0.414302 0.014719 
-0.223975 -0.179699 0.427647 
0.199832 -0.617789 0.470795 
-0.236949 0.394565 0.069121 
-0.473232 -0.365755 0.009816 
-0.122502 0.157694 0.048023 
-0.532398 0.313920 0.461999 
0.264999 -0.215720 -0.249102 
-0.481663 0.535054 -0.480243 
0.401582 0.065202 -0.039798 
0.233099 -0.274202 -0.258617 
0.339894 -0.621473 -0.026747 
-0.442859 0.406448 -0.448664 
0.252246 -0.176597 -0.240496 
-0.377574 -0.539272 0.040376 
0.143174 -0.420796 0.538582 
0.483739 -0.458217 -0.043063 
-0.346926 0.250224 -0.023771 
-0.094912 0.635231 -0.147694 
0.282500 -0.451602 0.496906 
0.061282 -0.585655 -0.212169 
-0.251743 -0.169132 0.442815 
0.562786 -0.224011 0.072086 
0.204827 -0.107180 -0.186866 
-0.378731 0.334819 -0.016034 
-0.374429 -0.359429 -0.066530 
-0.431097 -0.590209 0.446015 
-0.065345 0.127744 -0.035153 
-0.456046 -0.580536 0.049654 
-0.655597 -0.080650 0.129634 
0.012233 -0.634254 0.134048 
-0.079945 0.077302 0.326349 
-0.436694 -0.558441 0.075838 
-0.014772 -0.221278 -0.316166 
-0.174106 -0.381639 -0.104436 
-0.217252 0.372433 0.041016 
-0.146269 -0.502926 0.416558 
-0.533536 0.388006 0.384337 
0.019544 -0.137220 -0.264112 
0.183206 0.075944 -0.132746 
-0.173154 -0.544584 -0.087458 
0.093277 -0.470895 0.530137 
-0.238548 -0.587412 0.463915 
0.234381 -0.665458 0.227086 
0.034248 -0.425973 0.522281 
-0.225007 0.394354 -0.061276 
-0.398459 0.200471 0.417788 
-0.528098 -0.203100 0.392566 
-0.396687 -0.534254 0.443889 
0.163354 -0.206161 0.550096 
0.393636 -0.640212 0.278033 
-0.409473 0.371329 -0.161627 
-0.381422 -0.091548 0.446609 
-0.425412 -0.305131 -0.100809 
-0.265128 -0.193489 0.447105 
-0.150052 -0.265701 -0.245279 
0.521625 -0.157763 0.294703 
-0.160188 0.557078 -0.007984 
0.286427 -0.682202 0.069196 
-0.435292 0.105566 0.477566 
0.521448 -0.129170 -0.028329 
-0.424456 0.202684 -0.057496 
-0.082870 0.124580 0.268608 
-0.657392 0.060134 0.131315 
-0.132480 -0.620833 0.531994 
0.437996 -0.525117 0.347658 
-0.466773 0.589035 -0.436819 
-0.350299 -0.544684 0.283888 
-0.594807 0.128142 -0.005437 
0.507942 -0.288802 -0.057284 
0.144279 -0.319144 -0.286850 
-0.177982 -0.312940 -0.152409 
0.450707 0.054688 0.021438 
-0.392334 0.067971 -0.090956 
0.020645 0.158831 -0.006238 
-0.270260 0.250934 0.200976 
-0.404026 -0.566024 0.467618 
-0.360983 -0.527270 0.327242 
0.421449 -0.417180 -0.137308 
0.506934 -0.007263 0.128928 
-0.007227 -0.318163 -0.310031 
0.362274 0.153155 0.157550 
0.271111 -0.617297 0.456434 
-0.495534 0.462631 -0.048134 
-0.589812 0.345901 0.037175 
-0.135188 -0.637403 0.491066 
-0.077397 0.656306 -0.119046 
0.274480 -0.021283 0.421533 
-0.001044 0.048585 0.381433 
-0.498470 -0.612974 0.071613 
-0.672854 0.227249 0.127729 
-0.232553 -0.647240 0.253057 
-0.457237 0.051198 0.394890 
-0.125790 -0.409955 -0.218735 
-0.457405 -0.374315 0.296680 
-0.530993 0.600215 -0.413873 
-0.446008 0.496008 -0.157341 
0.024196 0.679683 -0.229035 
0.326417 -0.549509 -0.170620 
-0.424014 -0.374684 -0.020585 
0.333264 0.055069 0.341936 
0.350032 -0.219252 -0.199131 
-0.072115 0.063054 0.344303 
0.042421 -0.361934 0.535732 
0.503601 -0.625861 0.232707 
-0.262202 -0.479333 -0.041645 
-0.433610 0.383505 -0.327265 
0.335985 0.160139 0.205516 
-0.197033 0.579894 -0.034956 
0.306960 -0.464717 0.479963 
0.587753 -0.446233 0.312152 
0.490250 0.014361 0.089227 
-0.617548 0.411082 0.262301 
0.275681 -0.341358 -0.236785 
0.353511 0.143999 0.044504 
-0.109951 -0.624002 0.300003 
-0.008455 -0.613059 0.366133 
0.311203 0.092069 -0.080808 
-0.332375 0.048143 0.365691 
0.667562 -0.505498 0.217524 
-0.167289 -0.655356 0.113670 
0.261118 -0.664457 0.234528 
-0.449528 0.345093 0.415716 
-0.175059 -0.272357 -0.178865 
-0.434012 0.448044 0.117320 
0.171143 -0.691092 -0.132998 
-0.633265 -0.010989 0.114789 
0.298229 -0.432107 -0.219210 
-0.249367 -0.035586 0.413913 
0.344891 -0.632666 0.378707 
-0.238977 -0.077113 -0.161858 
-0.277398 0.147533 0.297947 
-0.126793 0.465525 0.002134 
-0.581857 -0.162839 -0.026720 
0.527180 -0.345185 -0.019258 
-0.213075 -0.390287 0.429498 
0.056320 0.193756 0.196619 
0.294378 -0.218097 0.506119 
0.057222 -0.637623 0.048783 
0.663798 -0.440960 0.252853 
0.113743 -0.682962 -0.088719 
-0.201591 0.505377 0.026540 
0.534104 -0.303966 0.286157 
-0.494618 0.455255 0.222170 
-0.673870 0.214742 0.121772 
-0.605972 0.037427 0.059639 
-0.294936 0.321231 0.019150 
-0.309676 -0.646699 -0.043392 
-0.641811 0.310562 0.309278 
-0.090031 -0.408326 0.400144 
0.515820 -0.206901 -0.074111 
0.527509 -0.064910 0.033448 
-0.293702 -0.451484 -0.045429 
-0.345491 0.091129 0.355598 
-0.669684 0.070805 0.194920 
-0.164581 0.527565 -0.011520 
-0.422567 0.349711 0.384712 
-0.426314 0.509135 -0.262394 
-0.349217 0.126870 0.378038 
-0.356227 -0.580187 -0.003569 
-0.443595 0.176249 0.498377 
0.415253 -0.587987 -0.012297 
-0.506616 0.468977 -0.070442 
-0.422392 0.452952 -0.125758 
-0.331727 0.097416 0.347828 
-0.362434 0.032947 -0.121560 
-0.483041 -0.077976 -0.096122 
-0.532874 0.363789 -0.074538 
-0.615867 0.282898 0.424326 
-0.376959 0.114557 -0.062578 
-0.330925 0.241585 -0.018868 
0.041350 -0.233767 -0.313590 
0.231859 0.039843 -0.149114 
-0.415862 0.080437 0.399748 
-0.385510 -0.545975 0.316597 
-0.495315 0.412483 0.353278 
-0.216906 -0.527593 0.431569 
-0.474591 0.519968 -0.486209 
-0.389090 -0.586325 0.489402 
-0.025958 -0.645803 -0.080287 
0.390432 -0.122306 -0.156915 
0.325567 -0.540985 -0.180046 
-0.172904 -0.667373 0.188114 
0.394859 -0.669477 0.075427 
-0.199343 -0.220271 -0.161153 
-0.614059 0.016476 0.076634 
0.370344 0.136445 0.059722 
-0.502340 0.560624 -0.301908 
-0.537242 0.106365 -0.034411 
-0.117705 -0.613958 0.545458 
-0.221581 -0.032647 0.408561 
0.191060 -0.084123 0.499008 
-0.446902 0.499907 -0.165520 
-0.277060 0.260596 0.080520 
-0.633708 -0.228263 0.135699 
-0.367591 -0.645887 0.356998 
-0.665368 0.100295 0.337572 
-0.489702 -0.343128 0.314733 
-0.427186 -0.404097 0.266948 
0.032465 0.155112 0.286194 
0.519241 -0.602208 0.027066 
-0.482970 -0.097121 0.423834 
-0.150759 -0.637191 0.020797 
-0.314470 0.389470 -0.026313 
-0.546189 0.144580 -0.035686 
-0.188004 0.424797 -0.094201 
-0.534917 0.091763 -0.031060 
0.252994 -0.455776 0.519099 
-0.602876 0.031614 0.056524 
0.059677 -0.621362 0.417100 
-0.632509 0.084498 0.426899 
0.466340 -0.184392 -0.124919 
-0.141009 -0.389376 0.405103 
-0.459422 -0.142658 0.438467 
-0.527969 0.520513 -0.210295 
0.376076 -0.559724 -0.124984 
-0.527673 0.480595 -0.120391 
-0.665184 0.064556 0.146682 
-0.289916 0.098359 0.320402 
-0.092957 0.083012 -0.094758 
0.174981 -0.618634 -0.166201 
-0.512129 0.424808 -0.249960 
-0.121011 -0.641187 -0.063514 
0.265115 -0.664050 0.220741 
-0.035567 -0.164638 -0.286563 
0.063088 -0.005361 0.412382 
-0.640403 0.301797 0.353572 
0.377438 0.131735 0.062133 
0.045938 -0.624617 -0.174827 
0.299133 -0.178443 0.492342 
-0.307791 -0.213774 -0.152150 
-0.291324 0.236193 0.016626 
-0.025891 -0.485659 0.477446 
-0.626555 -0.004809 0.229087 
0.450691 0.052114 0.014849 
-0.675428 0.230626 0.241199 
-0.254775 -0.333416 -0.112139 
-0.451151 0.566282 -0.546444 
-0.011405 0.632498 -0.240217 
-0.291098 -0.030181 -0.148390 
-0.044218 -0.634178 0.123538 
-0.503734 0.452542 0.137198 
0.226362 0.121856 -0.084790 
-0.106324 -0.086136 -0.187116 
0.558491 -0.618103 0.141915 
0.438592 -0.333186 0.399724 
0.404039 -0.652018 0.247716 
-0.410909 0.498556 -0.465551 
-0.435100 0.390818 -0.354512 
-0.505318 0.351987 -0.300476 
-0.342459 -0.347199 -0.080299 
-0.240127 -0.642835 -0.179435 
0.398758 0.118711 0.220936 
0.257415 -0.091117 0.470892 
0.634505 -0.337242 0.109371 
-0.298328 -0.404797 -0.060343 
-0.359544 0.393878 0.321195 
-0.411679 0.525651 -0.465643 
-0.005290 0.692899 -0.192757 
0.431385 -0.031897 -0.093915 
0.329236 -0.625030 -0.047971 
-0.243302 0.122256 0.281359 
0.532383 -0.192369 -0.037215 
0.243931 0.201081 0.087964 
0.529974 -0.515728 -0.024932 
-0.550915 0.474633 -0.203097 
-0.650994 0.112824 0.431437 
-0.197558 0.449893 -0.108683 
0.478406 -0.591046 -0.003866 
0.319670 -0.275429 -0.219397 
0.140660 0.186405 0.261752 
0.406152 -0.673919 0.149698 
-0.050702 0.559416 -0.203622 
-0.057092 0.501437 -0.088027 
0.043417 0.030842 0.400761 
0.336771 -0.178475 -0.194470 
-0.236259 -0.309517 -0.117907 
-0.546642 0.455198 -0.156158 
-0.025086 -0.484232 -0.262525 
-0.454270 -0.389249 0.018743 
-0.512013 -0.340635 0.289879 
-0.590598 -0.246262 0.288555 
0.415868 -0.545361 -0.046539 
-0.428699 0.426872 -0.425217 
-0.268130 0.184304 0.280645 
0.464265 -0.237486 0.392864 
-0.122334 -0.172904 -0.220944 
-0.195219 0.412018 0.041992 
0.485718 -0.467978 -0.024655 
0.536469 -0.219293 0.281994 
-0.509167 0.480658 -0.097395 
0.417208 -0.380460 -0.142509 
0.327979 0.115608 0.303693 
0.528691 -0.286518 -0.026795 
-0.060225 -0.242370 -0.311909 
0.012780 -0.023003 0.414130 
0.019221 -0.184221 -0.302002 
-0.285427 0.202819 0.005499 
0.332448 -0.165285 0.465717 
0.322175 -0.446970 -0.202434 
-0.056785 0.576961 -0.204010 
-0.577178 -0.052774 -0.022698 
-0.285526 0.264197 0.049636 
0.384251 -0.567727 -0.100012 
-0.399997 0.444889 -0.266224 
-0.486392 -0.034245 -0.083233 
0.107606 0.038441 0.401534 
-0.050428 -0.137330 0.503844 
-0.194104 0.057880 0.346844 
-0.315095 -0.613272 -0.030790 
0.076032 0.537938 -0.216738 
-0.598350 0.253361 0.013354 
-0.341482 0.140058 0.375743 
0.225306 0.163623 -0.034482 
-0.513178 -0.387407 0.134830 
-0.052042 0.140684 -0.012227 
-0.259547 -0.381112 0.409078 
-0.300351 0.012942 0.388513 
-0.367758 -0.661718 0.223981 
-0.325305 0.366338 0.263768 
0.538562 -0.626425 0.153358 
-0.318825 -0.443122 0.333162 
-0.170818 -0.687693 -0.120790 
-0.103200 0.435825 -0.110047 
-0.579902 0.185822 -0.021109 
-0.671658 0.154466 0.410703 
-0.418133 -0.587406 0.465328 
0.211934 -0.386283 -0.251197 
0.410237 -0.557166 -0.036677 
0.444170 -0.577285 -0.013668 
-0.522914 0.363842 -0.222818 
-0.488451 -0.656093 0.169558 
-0.102857 -0.628497 0.260810 
-0.501001 -0.121624 0.419283 
-0.406596 -0.228706 -0.132465 
-0.280349 0.426623 0.094863 
-0.261229 0.175742 -0.020590 
-0.180494 0.047472 -0.127253 
-0.103891 0.587520 -0.172054 
-0.365448 -0.555635 0.482824 
-0.502587 -0.657476 0.148664 
-0.178298 -0.171303 0.436565 
-0.385862 -0.555962 0.472606 
-0.449763 -0.293611 0.395129 
0.378474 -0.633700 0.305034 
-0.162587 0.059469 0.338181 
0.301172 -0.634665 0.440485 
-0.607001 0.312257 0.048493 
-0.150187 -0.569797 -0.170733 
-0.451118 -0.611307 0.424257 
-0.267378 -0.648807 -0.154021 
-0.492853 -0.627969 0.179163 
-0.313251 -0.312266 0.407392 
0.035902 -0.226750 -0.313598 
0.283835 -0.330475 -0.232213 
-0.500290 0.465454 -0.057899 
0.528373 -0.240267 0.301212 
-0.582560 -0.283497 0.024970 
0.285292 0.061813 0.350873 
-0.550946 0.021153 0.336140 
-0.646368 0.143648 0.446744 
0.091901 -0.686462 -0.095960 
-0.572660 -0.068011 0.348855 
-0.046305 -0.220020 0.537746 
-0.268655 -0.342657 -0.103985 
0.352317 0.128060 -0.001217 
-0.419734 -0.549734 0.081566 
0.654644 -0.539010 0.182850 
0.509365 -0.410751 -0.022000 
0.115030 0.145228 0.325206 
-0.648178 0.252210 0.070889 
-0.503709 -0.376348 0.242936 
-0.606393 -0.189885 0.310496 
0.524977 -0.213526 0.307295 
-0.545599 0.161540 0.491122 
0.019761 -0.355070 -0.304261 
-0.135123 -0.442164 -0.167752 
-0.159676 -0.466629 -0.060785 
-0.296159 0.374852 0.132643 
-0.507888 0.497986 -0.133196 
-0.034417 0.131766 -0.038319 
0.374885 -0.468072 -0.166645 
-0.358552 0.419357 0.305484 
0.188057 -0.227940 0.544439 
0.025970 -0.240979 0.550484 
-0.406006 0.124878 -0.057018 
-0.405770 0.456296 -0.187484 
-0.251574 0.358753 -0.024306 
-0.276940 0.037722 -0.123485 
-0.261758 -0.408419 0.407220 
-0.357452 -0.171886 -0.157776 
-0.095405 0.145712 0.019761 
-0.255002 0.153111 -0.058761 
0.488650 -0.391973 -0.076802 
0.466702 -0.297852 0.383427 
-0.432045 -0.325016 0.379152 
-0.216851 -0.457377 -0.044690 
-0.380301 -0.656016 0.267394 
-0.495529 0.042681 -0.048964 
-0.541647 0.352220 -0.023280 
0.192270 -0.667384 0.237411 
0.509760 -0.299204 -0.051561 
-0.131191 -0.102254 -0.180746 
-0.497269 -0.285342 -0.074460 
-0.460702 0.548766 -0.302041 
-0.229689 -0.309328 -0.117037 
-0.569012 0.444660 0.178918 
-0.412829 -0.636670 0.442238 
-0.149586 -0.513523 -0.071921 
-0.506266 0.442664 0.077833 
-0.448819 0.061706 0.413314 
-0.556317 0.515279 -0.276335 
0.695649 -0.427476 0.136405 
-0.192854 0.576704 -0.101676 
0.041811 -0.526255 -0.248483 
-0.127441 0.402066 -0.046941 
0.539626 -0.270824 -0.005862 
0.130825 0.182806 0.268623 
-0.402311 -0.527655 0.390738 
0.003694 0.153453 0.264399 
-0.397842 0.081421 -0.078725 
-0.478338 0.560427 -0.321090 
-0.059379 -0.355886 -0.305155 
-0.221718 -0.607814 -0.172738 
-0.558344 0.588504 -0.434015 
-0.490760 -0.074690 -0.092683 
-0.014259 -0.492657 0.482961 
-0.625195 0.187790 0.013092 
0.187960 -0.640086 0.391019 
-0.384404 -0.164171 0.451730 
-0.535105 0.535626 -0.391763 
0.534527 -0.212612 0.285172 
-0.693425 0.144589 0.180284 
-0.309034 0.130196 0.339468 
0.441836 -0.001967 -0.067649 
-0.438132 0.046843 -0.080414 
-0.269928 0.223851 0.049624 
-0.172383 0.580360 -0.119160 
-0.307564 0.237383 0.309776 
-0.143912 -0.419003 -0.158836 
0.037057 -0.526001 0.491673 
-0.000686 -0.640678 -0.034259 
0.445357 0.056203 0.258825 
0.021403 0.470835 -0.151427 
0.084272 0.107026 0.355504 
-0.281588 0.332553 0.085247 
0.278514 -0.176848 -0.220642 
-0.030671 -0.334013 -0.310871 
0.119693 -0.638699 0.002196 
0.509143 -0.071224 0.269348 
-0.357906 -0.411614 -0.010174 
-0.186725 -0.540935 -0.057570 
-0.257956 -0.649577 -0.169461 
0.152275 0.130236 -0.075358 
0.208930 -0.692624 -0.105971 
-0.369157 -0.476882 0.127896 
0.436471 -0.296854 -0.146576 
-0.323294 0.242154 0.323391 
-0.154248 -0.613388 0.518057 
-0.309776 0.095114 0.331396 
-0.324782 -0.511286 -0.007039 
0.108991 0.174011 0.279592 
-0.022928 -0.637418 0.068682 
0.068594 0.592833 -0.250334 
-0.671052 0.111351 0.366369 
-0.636465 -0.213707 0.181414 
-0.634816 0.038345 0.137579 
-0.436231 -0.419205 0.067769 
0.088481 -0.609209 -0.178499 
-0.045339 -0.114203 0.485310 
0.457406 -0.654909 0.190361 
-0.600736 -0.288414 0.101222 
-0.010775 -0.120232 -0.216879 
0.649328 -0.381704 0.254927 
-0.081796 0.069519 0.335326 
0.402934 -0.357404 -0.166774 
-0.244681 -0.677254 -0.022599 
-0.069522 -0.632849 0.148473 
-0.451714 -0.232542 -0.118741 
-0.327073 0.070379 -0.110673 
-0.614097 -0.259117 0.172222 
-0.179125 0.390193 -0.056573 
0.021758 -0.045906 -0.185813 
0.167077 -0.677309 0.116356 
-0.485006 -0.375426 0.034072 
-0.570035 -0.266181 0.300375 
-0.208724 0.579281 -0.071438 
0.085064 -0.281820 0.559212 
-0.329976 -0.275291 0.430873 
-0.205515 -0.658941 -0.053281 
0.215912 -0.611691 0.466851 
0.528083 -0.143258 0.277386 
-0.428557 0.034890 -0.091589 
-0.077932 -0.641168 -0.030725 
0.123092 -0.381719 0.551957 
0.435026 -0.132262 -0.123369 
-0.141539 -0.656007 0.258325 
-0.573909 -0.254328 -0.006338 
-0.428475 0.595366 -0.505899 
0.307824 -0.630500 -0.124465 
-0.203678 -0.379198 -0.085771 
-0.562853 0.359988 0.001874 
0.594535 -0.435311 0.001769 
0.277250 0.091003 -0.105440 
-0.045730 0.152509 0.216773 
-0.364873 0.400340 0.325735 
0.252847 0.152633 -0.040109 
-0.079951 -0.136691 0.462770 
-0.413438 0.476635 -0.446224 
-0.106801 -0.648958 -0.094932 
-0.604935 -0.154246 0.316633 
-0.322315 -0.657223 0.210538 
0.421741 -0.672377 0.137919 
-0.033825 0.578489 -0.148633 
-0.368706 -0.662092 -0.025140 
0.077323 -0.585303 0.504084 
0.132092 -0.580148 -0.210900 
0.068702 -0.226424 -0.306239 
-0.617657 0.420537 0.236518 
0.498308 -0.102712 -0.057601 
-0.153768 0.456869 -0.125947 
0.564426 -0.328198 0.075440 
-0.349328 -0.557885 0.266174 
-0.657370 0.095100 0.317178 
-0.531515 -0.350196 0.228214 
0.184113 -0.641228 0.469875 
-0.008636 0.176766 0.078672 
-0.001877 0.029398 0.392760 
0.414640 -0.388394 -0.143053 
0.192725 0.166276 0.291911 
-0.528769 0.506418 -0.179028 
0.671767 -0.511040 0.132364 
0.331519 -0.657092 0.310709 
-0.394708 -0.332402 0.386039 
-0.270088 -0.558824 -0.031186 
-0.466083 -0.404447 0.232738 
-0.493458 0.316097 -0.073752 
-0.019578 -0.638187 0.470645 
-0.299331 -0.048563 0.424925 
-0.409091 0.443086 0.278752 
-0.028002 -0.637737 0.044943 
-0.469213 -0.094421 -0.103980 
-0.372829 -0.678053 0.004570 
0.125405 0.204953 0.185699 
-0.534844 0.612216 -0.444943 
0.087138 -0.636071 0.086626 
0.132702 -0.638277 0.016455 
0.501963 -0.159910 0.335822 
-0.386033 0.434813 0.038433 
-0.146393 -0.114917 0.438116 
-0.296112 -0.116645 0.440775 
-0.416435 -0.568680 0.192147 
0.004908 -0.069438 -0.190443 
-0.668753 0.159675 0.416513 
-0.565873 -0.051121 -0.034231 
-0.147902 -0.214202 -0.216393 
-0.377182 -0.017899 0.415997 
0.642679 -0.541995 0.075679 
-0.428210 -0.610123 0.461583 
-0.345706 -0.197353 -0.153095 
-0.490395 -0.667431 0.088920 
0.150226 0.202898 0.072419 
0.225083 0.129937 0.325986 
-0.597988 0.053190 0.296397 
-0.665635 0.084961 0.101652 
-0.262942 0.380595 -0.039996 
-0.637216 -0.114875 0.278839 
-0.052642 0.093738 -0.088859 
0.076685 -0.501972 -0.248126 
-0.425525 -0.645979 0.284676 
0.027984 0.495521 -0.189129 
0.181812 -0.065301 -0.181405 
-0.308154 -0.548943 0.469740 
-0.235356 0.126015 -0.083471 
-0.151897 -0.611068 -0.201535 
0.166354 -0.647336 0.261731 
-0.290791 -0.274653 0.435814 
-0.503538 0.055841 0.439205 
-0.669253 0.126415 0.408387 
0.175904 -0.685756 -0.146990 
-0.044020 0.155212 0.210861 
-0.296475 0.451394 -0.048278 
0.481596 -0.222201 -0.121318 
0.686558 -0.374531 0.177847 
-0.030674 0.594243 -0.222237 
-0.535179 -0.339687 0.053365 
0.076864 0.007669 -0.175694 
-0.209265 0.474178 -0.110909 
0.239263 0.205826 0.138026 
-0.260921 0.067594 0.344834 
0.038785 0.663914 -0.257494 
-0.271432 -0.648663 -0.141891 
0.546592 -0.097116 0.112709 
-0.316942 0.172872 0.353150 
-0.520755 0.064064 -0.025253 
-0.111419 0.576916 -0.065191 
-0.028110 -0.638131 -0.187339 
-0.507447 0.489075 -0.371307 
0.547363 -0.144641 0.233374 
-0.277750 -0.671198 0.121744 
-0.323895 -0.487229 0.269986 
-0.248121 -0.667989 -0.180274 
0.437816 -0.298077 0.409305 
-0.235336 0.145656 -0.065239 
-0.609539 0.394587 0.074554 
-0.078079 0.091504 -0.086828 
-0.364177 -0.551100 0.196963 
0.435721 -0.280210 -0.150486 
0.299326 -0.107269 0.468198 
0.412745 -0.662359 0.212712 
0.175832 -0.239654 -0.276679 
-0.021279 0.089971 0.344735 
0.453214 0.070103 0.118200 
-0.492443 0.388974 -0.423864 
-0.660026 0.089998 0.353065 
-0.191638 -0.693511 -0.176059 
-0.438099 0.399494 -0.387413 
0.470733 -0.252438 0.386239 
0.304880 -0.646082 -0.101718 
0.031402 0.539727 -0.236582 
-0.663896 0.251726 0.234088 
-0.304603 0.382654 0.173102 
-0.604878 -0.223945 0.019374 
0.034023 -0.335998 0.533142 
-0.201658 0.489973 0.022091 
0.313851 -0.664291 0.269971 
-0.483943 0.632638 -0.501870 
0.320879 -0.520804 0.435647 
0.180630 -0.656458 0.263547 
0.380661 0.132818 0.076407 
0.669272 -0.383200 0.070776 
0.193966 -0.060868 0.456609 
-0.522049 0.347912 -0.080363 
0.106616 -0.627081 0.408109 
-0.512626 0.446841 0.104347 
-0.619511 0.047245 0.238216 
-0.075279 0.028131 0.377324 
0.681514 -0.488923 0.141705 
-0.217774 0.544503 -0.097195 
0.317807 0.176801 0.156917 
-0.029221 0.448740 -0.115240 
0.399518 -0.399384 -0.151053 
0.444131 -0.420218 -0.113683 
-0.097376 -0.634447 0.103249 
0.013862 -0.141316 0.539886 
0.109390 0.000391 -0.178839 
-0.224515 0.159137 -0.043781 
0.437499 -0.611933 0.294224 
0.055477 -0.223374 -0.306730 
0.394327 -0.551357 0.381700 
0.487978 -0.177212 -0.095406 
-0.190943 0.123513 -0.074940 
0.064036 0.191080 0.221051 
-0.468868 0.175332 -0.058786 
-0.491966 -0.039665 -0.082516 
-0.568040 0.391247 0.356433 
-0.370719 0.373534 -0.007235 
0.209971 -0.686045 -0.140689 
-0.663370 0.098505 0.331140 
-0.339039 -0.484502 0.172638 
0.374279 -0.665638 0.231298 
-0.607409 0.067005 0.423793 
0.392925 -0.079097 -0.141987 
0.443325 -0.644300 0.035937 
0.273455 -0.676976 0.078697 
0.061109 -0.612195 -0.177941 
0.624236 -0.526402 0.031849 
-0.212119 0.463767 -0.106790 
0.413413 0.076005 -0.007918 
-0.150709 -0.651585 0.301308 
-0.205501 -0.557118 -0.093772 
-0.413616 0.375524 -0.233856 
-0.512668 0.405747 -0.257813 
0.117635 -0.236866 -0.301384 
-0.376179 0.395107 -0.000839 
-0.080401 0.007103 -0.154795 
-0.452464 -0.402473 0.251160 
-0.316135 -0.441938 0.339886 
-0.430534 -0.274568 0.414020 
-0.402936 0.429415 -0.285745 
-0.423036 0.161819 0.482801 
0.392390 -0.106466 -0.148759 
-0.286196 -0.489008 0.400273 
0.413925 0.078827 -0.001379 
-0.473324 0.452487 0.138376 
0.236842 0.182264 0.257279 
-0.331370 -0.381665 -0.050582 
0.284655 -0.296623 0.519409 
-0.243412 -0.296991 0.433832 
0.566932 -0.256450 0.118943 
-0.189670 0.131658 0.281219 
-0.680856 0.113793 0.125275 
-0.013047 0.578351 -0.164473 
0.039047 -0.380210 0.539504 
-0.067721 -0.480290 0.433468 
-0.439693 -0.568969 0.054617 
0.080915 -0.446306 -0.273072 
-0.162431 -0.395846 0.418118 
0.064998 -0.631945 0.431530 
0.214160 -0.634328 0.366803 
-0.358928 -0.412639 0.289187 
0.558320 -0.516237 -0.018828 
-0.476850 -0.633151 0.204095 
-0.285425 -0.602820 -0.043890 
-0.136016 -0.475017 0.393514 
0.437264 0.060546 0.003284 
-0.471645 0.477470 -0.081621 
0.124517 0.054916 -0.139827 
-0.254752 0.541544 -0.056089 
-0.096767 -0.491871 0.429990 
-0.534054 0.542912 -0.403049 
0.117805 -0.645951 0.171062 
-0.498670 0.585418 -0.494861 
-0.067741 0.447304 -0.120801 
-0.496149 0.498526 -0.125746 
-0.081617 0.163271 0.106487 
-0.413241 -0.048855 -0.128873 
-0.217918 0.189523 0.061199 
-0.386492 -0.267550 -0.128336 
-0.386918 -0.157672 0.454124 
-0.067633 -0.205453 0.517184 
-0.456514 0.564133 -0.393227 
-0.445535 0.376959 0.389043 
0.042829 0.140027 -0.051621 
-0.094098 -0.634274 0.113146 
-0.652611 0.378632 0.248334 
0.139792 0.131557 -0.074337 
-0.499489 0.304849 0.465240 
0.063941 0.627820 -0.295401 
0.197383 -0.189569 0.546534 
-0.109716 0.504286 -0.063361 
-0.390218 -0.251646 0.435740 
-0.500305 0.355348 -0.338054 
-0.217397 -0.631775 -0.190399 
-0.381709 -0.533847 0.456428 
0.317326 -0.526921 0.432891 
0.066892 -0.611386 0.378519 
0.567882 -0.293807 0.142727 
-0.146592 -0.318587 -0.251420 
-0.528362 -0.126993 0.401741 
-0.299804 -0.663620 -0.072427 
0.435745 -0.324736 0.400644 
-0.166911 -0.082669 -0.173348 
0.593640 -0.343681 0.090829 
-0.223798 0.187759 0.041590 
0.540267 -0.486443 -0.018722 
0.133343 -0.003819 0.416122 
-0.498614 0.105357 -0.046733 
0.166019 -0.689802 -0.140800 
-0.028484 0.462848 -0.045956 
-0.568000 0.443220 0.211831 
-0.396548 -0.671210 0.090520 
-0.544706 0.520526 -0.250446 
-0.367283 -0.216547 0.446493 
0.269951 0.037950 0.364831 
0.090762 -0.617952 0.330319 
-0.098724 -0.107640 0.436537 
0.552235 -0.126998 0.178857 
0.102433 0.032384 -0.152753 
0.336613 -0.678793 0.110102 
0.502163 -0.620943 0.247715 
-0.332014 -0.451539 -0.021183 
-0.503022 0.440224 -0.338490 
0.005773 -0.629856 0.203029 
-0.056660 -0.253556 -0.314241 
0.353310 -0.610415 -0.028968 
-0.270764 0.129861 -0.080329 
0.204563 0.071579 0.375871 
-0.390812 -0.317711 -0.101548 
-0.612186 0.002472 0.257305 
0.164467 0.209734 0.142115 
0.688233 -0.398396 0.200927 
-0.323065 -0.673560 0.070308 
-0.409900 -0.088378 0.439919 
-0.658046 -0.139858 0.216832 
0.461892 0.061692 0.165285 
0.558823 -0.602080 0.224703 
0.137906 0.204515 0.196732 
-0.131277 -0.543201 -0.149144 
-0.285561 -0.282297 0.430629 
-0.385996 0.123291 -0.057411 
0.474840 -0.464308 0.343864 
-0.286133 0.519244 -0.028303 
-0.540909 0.426820 0.045099 
-0.392069 -0.207157 -0.141822 
-0.646071 -0.061206 0.103844 
-0.561399 0.202972 0.501375 
-0.015101 -0.510424 0.487879 
0.442329 -0.275753 -0.147764 
-0.075328 0.555990 -0.111749 
-0.080931 -0.608910 0.391964 
0.523288 -0.264524 0.309638 
-0.589202 -0.308099 0.131157 
-0.013064 -0.219922 0.553040 
-0.075149 -0.694306 -0.152519 
0.001607 0.068560 0.367783 
-0.686005 0.207892 0.232030 
0.493790 -0.101764 -0.064305 
0.135710 -0.349545 0.553849 
0.478088 -0.556972 -0.019074 
-0.129943 0.140883 -0.008263 
-0.180162 -0.443793 -0.054433 
0.484146 0.002580 0.018507 
0.024672 -0.447270 0.514843 
-0.020345 -0.634943 0.105229 
0.285185 0.021245 0.373577 
0.045694 0.067768 0.377663 
0.044588 0.580534 -0.276862 
-0.209828 0.385552 -0.054931 
0.058475 -0.646350 -0.071097 
-0.335130 -0.669570 0.126290 
-0.420456 0.358064 -0.204106 
-0.347167 -0.564236 0.232908 
-0.482584 0.018706 -0.065335 
-0.441450 0.440401 0.074174 
-0.517530 0.388994 -0.268815 
-0.503560 0.337053 -0.134070 
-0.369260 0.285231 -0.035600 
-0.058302 -0.482379 -0.247359 
-0.555742 -0.001993 0.333896 
-0.463852 -0.136198 -0.111302 
-0.604763 0.055490 0.349200 
-0.486507 0.076630 0.475621 
0.347879 -0.641344 0.339483 
-0.180999 -0.656760 0.092860 
-0.256735 0.507184 0.041878 
0.183733 -0.649615 0.407632 
-0.286445 -0.652126 0.290129 
0.330836 -0.083324 -0.173382 
-0.643591 0.335591 0.291116 
-0.131785 -0.237088 -0.269714 
0.630839 -0.561752 0.197433 
-0.503398 -0.085177 -0.090368 
0.505422 -0.425621 -0.019264 
0.047930 -0.194165 0.553139 
-0.003371 -0.447389 0.506025 
-0.669633 0.068990 0.185619 
0.160592 -0.642922 -0.031165 
0.639180 -0.508811 0.042089 
-0.628703 -0.176805 0.041405 
0.015846 -0.595382 -0.194713 
-0.460007 -0.314000 0.374491 
0.046017 0.077531 0.370552 
0.158086 0.165743 0.294928 
-0.095333 0.085908 0.318231 
0.534646 -0.356424 0.010880 
-0.406628 0.313116 0.364705 
0.459268 -0.385170 -0.107625 
-0.341668 -0.215689 -0.149081 
0.373554 -0.016932 -0.118506 
-0.190719 0.549529 -0.118877 
0.084428 -0.418460 0.545557 
0.586378 -0.601227 0.118642 
-0.218841 -0.689839 -0.133866 
-0.447329 -0.667210 0.011436 
0.020731 -0.067821 -0.193871 
-0.379150 -0.529859 0.450156 
0.061991 0.579840 -0.228835 
-0.433644 -0.572693 0.328237 
-0.295600 -0.280359 -0.123645 
-0.391655 0.227756 0.384348 
0.558305 -0.326640 0.221500 
-0.498389 0.580029 -0.490158 
0.515709 -0.617257 0.046701 
-0.644477 0.274246 0.259508 
0.222154 -0.511487 -0.225586 
-0.164212 0.177790 0.065062 
0.074390 -0.611259 0.379605 
